1.63755 -1.32488 4.79941 74 48 62
1.62694 -0.724335 4.76846 76 51 80
1.60136 0.859691 4.69304 128 115 128
1.63936 -1.49425 4.80202 128 112 128
1.62169 -0.207202 4.7509 125 106 128
1.64015 -1.33778 4.79971 126 102 112
1.63995 -1.26215 4.79133 128 116 123
1.63132 -0.577463 4.76644 66 58 85
1.64406 -1.57789 4.80249 82 62 88
1.63596 -1.05883 4.78336 128 122 128
1.64455 -1.44658 4.80372 63 39 55
1.64376 -1.25301 4.79428 76 51 64
1.64381 -1.25353 4.79548 76 51 64
1.64917 -1.43346 4.80381 128 116 128
1.62024 0.193612 4.71746 79 64 93
1.63611 -0.548429 4.76375 84 66 90
1.63611 -0.548429 4.76375 84 66 90
1.62929 -0.0398441 4.74369 128 118 128
1.63126 -0.222139 4.75041 52 45 60
1.6492 -1.34719 4.79955 87 58 76
1.64904 -1.34727 4.79967 87 58 76
1.62942 -0.0201959 4.73788 79 62 77
1.63521 -0.240854 4.7546 128 112 128
1.6569 -1.63016 4.81632 58 42 52
1.6569 -1.63016 4.81632 58 42 52
1.63068 0.0420514 4.73534 77 62 72
1.62522 0.182821 4.71931 128 128 128
1.6527 -1.48075 4.7978 74 56 82
1.62076 0.8227 4.69927 93 70 88
1.65926 -1.64512 4.8097 128 109 126
1.6409 -0.256686 4.75273 76 64 94
1.61915 0.789865 4.68801 128 117 128
1.65024 -1.0902 4.7796 120 106 126
1.65854 -1.41815 4.79997 91 60 77
1.65853 -1.41832 4.80003 91 60 77
1.66718 -1.66011 4.80893 82 60 86
1.66416 -1.46065 4.79937 128 106 128
1.63196 0.834042 4.69923 74 48 62
1.63744 0.412603 4.71654 126 110 128
1.66113 -1.07645 4.78175 56 42 56
1.63608 0.644051 4.70795 79 61 82
1.63494 0.643879 4.70464 79 61 82
1.63926 0.519477 4.71621 79 62 80
1.65834 -0.422055 4.75854 58 46 63
1.6492 0.0516524 4.7325 128 118 128
1.65383 -0.0215016 4.73663 128 116 128
1.6664 -0.580948 4.77203 60 46 70
1.6664 -0.580953 4.77204 60 46 70
1.66697 -0.724728 4.77441 49 30 52
1.66032 -0.065232 4.74376 115 106 124
1.68636 -1.44498 4.80736 45 34 42
1.68652 -1.44567 4.80916 45 34 42
1.66025 0.21337 4.72917 49 40 54
1.65047 0.839814 4.70052 128 121 126
1.66746 -0.0356234 4.74787 90 66 84
1.66215 0.383977 4.72849 62 48 62
1.68136 -1.06976 4.78131 66 46 69
1.65491 0.641463 4.70654 70 52 72
1.66957 -0.201609 4.74673 112 96 116
1.66107 0.371515 4.72107 112 99 124
1.65505 0.836409 4.69973 128 108 111
1.66517 0.226873 4.72717 127 108 126
1.69442 -1.62919 4.81144 75 48 72
1.66252 0.483979 4.71837 128 119 128
1.66929 -0.0223391 4.73693 128 128 128
1.6954 -1.45798 4.79432 124 104 127
1.67761 -0.182487 4.74568 115 98 115
1.66692 0.417393 4.71412 76 56 77
1.67642 -0.00123157 4.73342 128 121 128
1.68388 -0.190746 4.74691 56 34 48
1.67562 0.522122 4.71836 80 54 66
1.67231 0.642829 4.70428 89 69 86
1.69319 -0.398284 4.76055 128 120 128
1.70106 -1.07832 4.78259 76 66 82
1.67721 0.209489 4.71718 48 42 62
1.67742 0.209326 4.71622 48 42 62
1.68474 0.0676266 4.72838 85 64 86
1.68005 0.53426 4.71259 128 126 128
1.68796 -0.00456233 4.73343 107 83 110
1.68929 -0.012756 4.73321 128 128 128
1.68099 0.436512 4.70911 124 110 128
1.68699 0.50961 4.72033 68 58 74
1.69082 0.180383 4.7217 128 122 128
1.69508 0.38054 4.72843 54 44 66
1.70277 -0.0495434 4.74305 48 37 54
1.69889 0.0663213 4.72882 88 68 82
1.6917 0.699828 4.69828 128 122 128
1.7343 -1.6295 4.81189 58 37 56
1.70512 0.226485 4.72654 128 113 128
1.73263 -1.44963 4.80115 68 46 62
1.73263 -1.44963 4.80115 68 46 62
1.71422 -0.0626275 4.7353 114 98 122
1.73322 -0.911578 4.78765 128 113 123
1.67345 0.959506 4.61395 122 108 125
1.71272 0.539326 4.72064 128 122 128
1.74502 -1.48224 4.80064 87 65 93
1.74503 -1.48223 4.80059 87 65 93
1.74325 -0.924971 4.78938 76 63 85
1.72366 -0.0395827 4.73685 128 114 128
1.7434 -1.07238 4.7892 58 45 58
1.71457 0.512786 4.70679 64 55 68
1.72426 0.0678999 4.73088 78 57 82
1.7511 -1.44812 4.80506 72 50 66
1.75107 -1.44814 4.80502 72 50 66
1.72019 0.270111 4.71916 72 63 92
1.72289 0.583762 4.71534 84 64 82
1.72285 0.583977 4.71532 84 64 82
1.72867 0.0398685 4.72975 94 71 100
1.7218 0.833512 4.70966 72 60 72
1.76004 -1.43567 4.8057 128 118 128
1.725 0.620543 4.71053 79 64 81
1.7255 0.62045 4.71255 79 64 81
1.75645 -1.07222 4.78616 70 53 66
1.75871 -0.983357 4.78711 80 66 94
1.7589 -1.01589 4.78755 80 63 88
1.75884 -0.894614 4.78284 67 48 68
1.74186 0.224447 4.73334 128 128 128
1.75321 -0.413801 4.75876 49 44 71
1.74147 0.389703 4.72706 128 112 124
1.76452 -0.907325 4.78829 128 128 128
1.76278 -0.906439 4.78413 128 128 128
1.73818 0.61155 4.70896 128 118 128
1.77422 -0.918639 4.79207 80 64 86
1.75318 0.0173805 4.7336 128 122 128
1.77053 -0.720904 4.77488 67 56 76
1.77822 -1.07917 4.78455 92 72 90
1.75568 0.28211 4.72183 72 64 91
1.74808 0.801523 4.69566 120 98 116
1.7643 0.217438 4.73878 58 42 63
1.76426 0.217507 4.73888 58 42 63
1.75223 0.851538 4.69815 128 123 128
1.75971 0.422732 4.71464 79 66 94
1.75973 0.422753 4.71473 79 66 94
1.78792 -0.701771 4.77711 122 102 126
1.77811 -0.218964 4.74957 72 62 86
1.77444 -0.0286853 4.73818 98 76 100
1.77448 -0.0286365 4.73835 98 76 100
1.77469 -0.0382723 4.7373 128 117 128
1.79417 -0.94248 4.78175 79 58 90
1.7941 -0.94242 4.78157 79 58 90
1.77764 0.533297 4.71619 128 121 128
1.80127 -0.72055 4.77652 50 40 57
1.78948 -0.048871 4.74095 64 48 68
1.77386 0.852939 4.70065 124 110 128
1.8205 -1.4491 4.81033 55 32 46
1.81656 -0.925923 4.78351 76 60 86
1.81423 -0.938992 4.77972 128 118 128
1.7927 0.4206 4.71853 79 68 92
1.80738 -0.223767 4.74858 78 68 92
1.80738 -0.223767 4.74858 78 68 92
1.78899 0.781579 4.69722 95 76 100
1.78894 0.874261 4.69511 78 59 72
1.80582 0.228964 4.73806 128 114 128
1.79133 0.858676 4.69721 78 60 82
1.81596 -0.559295 4.75925 124 100 118
1.82124 -0.578923 4.76869 64 51 76
1.80768 0.215011 4.7314 58 46 63
1.84129 -1.62932 4.81772 83 56 82
1.80241 0.626396 4.71236 118 106 128
1.80821 0.51146 4.72135 66 52 65
1.80784 0.512195 4.7236 66 52 65
1.83308 -1.05062 4.78749 90 70 99
1.81713 -0.0230655 4.73733 72 59 90
1.81436 0.385089 4.72775 90 66 91
1.81012 0.527832 4.71632 128 122 128
1.80477 0.848183 4.70059 122 110 128
1.8405 -0.942709 4.78212 100 70 96
1.84917 -1.56091 4.80517 128 119 128
1.84403 -1.06154 4.78641 128 126 128
1.83474 0.212258 4.73347 54 46 66
1.86331 -1.43995 4.80664 128 117 128
1.85719 -0.934135 4.78632 84 62 86
1.85727 -0.934133 4.78593 84 62 86
1.8489 0.0686214 4.73854 92 68 92
1.87864 -1.43586 4.81641 128 116 126
1.86654 -0.705948 4.77246 128 110 128
1.83798 0.857611 4.69945 80 62 82
1.851 0.192076 4.7278 127 112 128
1.88373 -0.893351 4.78421 84 68 92
1.88373 -0.893351 4.78421 84 68 92
1.87715 -0.375767 4.7638 128 120 128
1.89725 -1.61872 4.81654 128 118 128
1.87599 -0.289119 4.75736 128 116 128
1.87625 -0.334103 4.75735 128 126 128
1.88638 -0.720474 4.77536 64 49 68
1.88729 -0.396299 4.76426 117 101 119
1.86482 0.859742 4.69769 128 115 128
1.88965 -0.231617 4.75902 65 52 66
1.88413 -0.0732996 4.74146 128 117 128
1.91055 -1.35051 4.80457 94 72 86
1.87632 0.52523 4.71603 128 116 128
1.89687 -0.562109 4.76572 128 112 128
1.90617 -1.07861 4.78749 80 59 70
1.90953 -1.07552 4.79353 71 49 62
1.90742 -1.14637 4.78618 96 75 106
1.90631 -0.925721 4.78275 128 120 128
1.88514 0.261395 4.72736 78 63 89
1.89715 0.0469045 4.74477 118 102 126
1.89597 0.220728 4.73116 128 124 128
1.91153 -0.26574 4.75737 80 62 76
1.90048 0.641476 4.71884 58 48 66
1.93622 -1.25387 4.80355 58 40 60
1.93622 -1.25388 4.80353 58 40 60
1.921 -0.221786 4.76348 72 56 74
1.93566 -1.27037 4.799 124 102 126
1.94607 -1.44732 4.81107 70 53 72
1.94087 -1.289 4.7967 96 70 99
1.91026 0.626803 4.71167 120 109 128
1.90743 0.797704 4.70189 128 128 128
1.92573 -0.0799267 4.7469 93 68 89
1.92573 -0.0799267 4.7469 93 68 89
1.92529 -0.0736276 4.74549 128 113 128
1.9263 0.0516891 4.74344 66 52 70
1.92622 0.0517239 4.74426 66 52 70
1.94012 -0.303451 4.75494 128 118 128
1.94012 -0.303451 4.75494 128 118 128
1.93698 -0.0378015 4.74606 128 126 128
1.92409 0.831525 4.70973 54 43 56
1.9406 0.0691259 4.74473 64 42 61
1.93965 -0.0688995 4.74198 83 60 84
1.92625 0.879467 4.69949 76 62 83
1.95115 -0.21983 4.75849 60 52 67
1.96785 -1.26611 4.79861 126 102 123
1.95101 -0.219538 4.7569 61 54 68
1.93028 0.862999 4.70222 128 128 128
1.93725 0.838768 4.70963 60 51 62
1.93712 0.838752 4.70938 60 51 62
1.97867 -0.917464 4.7813 96 74 99
1.96198 0.0280533 4.73938 96 79 106
1.99822 -1.62728 4.81831 90 62 77
1.99822 -1.62728 4.81831 90 62 77
1.95527 0.827782 4.70436 70 50 69
1.97513 -0.0883239 4.74414 128 118 128
1.97265 0.830595 4.71219 65 48 62
1.97106 0.829749 4.70832 65 48 62
1.99863 0.511461 4.72674 68 54 70
2.01803 -0.414232 4.76134 122 104 114
1.99855 0.824905 4.70717 51 36 53
2.02864 -0.749438 4.77824 90 74 104
2.02223 -0.0876443 4.74592 128 119 128
2.04219 -0.602216 4.76891 128 118 128
2.04152 0.0439934 4.74331 96 78 106
2.03498 0.792514 4.70593 128 109 126
2.04413 0.376715 4.72525 114 106 128
2.05493 -0.0385223 4.74637 128 110 128
2.03764 0.835528 4.7025 128 122 128
2.07406 -0.598274 4.76824 128 114 128
2.04876 0.808064 4.70719 68 50 72
2.05629 0.827904 4.70848 62 46 60
2.06558 0.427088 4.72254 84 68 94
2.07834 -0.0818905 4.74844 128 116 128
2.11361 -1.28915 4.80286 128 127 128
2.12142 -1.48795 4.81037 94 74 101
2.03533 1.07137 4.61279 27 17 14
2.11994 -1.39045 4.80434 128 124 128
2.08197 0.887057 4.69593 90 64 75
2.11169 -0.0818335 4.7471 128 117 128
2.10691 0.181968 4.7361 128 122 128
2.12647 -0.4641 4.76801 76 62 88
2.06027 0.991706 4.61471 128 128 128
2.10724 0.590743 4.71344 78 71 100
2.10724 0.590743 4.71344 78 71 100
2.06626 0.971612 4.61711 112 86 94
2.14613 -0.265758 4.75928 88 64 90
2.14613 -0.265758 4.75928 88 64 90
2.09689 0.992062 4.61502 45 24 20
2.14563 0.533313 4.71737 75 64 92
2.1231 0.997454 4.6191 42 26 20
2.1231 0.997389 4.61911 42 26 20
2.12672 1.06101 4.60895 36 23 19
2.12681 1.06119 4.60943 36 23 19
2.18132 0.981207 4.61636 128 128 128
2.20592 0.974089 4.61679 32 17 14
2.23421 1.08913 4.61341 90 86 94
-2.43533 -1.23021 4.65824 69 53 66
-2.40686 -0.457595 4.61804 128 114 125
-2.39627 0.135222 4.59219 128 120 128
-2.37833 0.904001 4.5578 74 60 72
-2.38287 0.122183 4.59242 122 105 112
-2.35633 0.930421 4.53065 128 120 128
-2.39682 -1.23077 4.65804 82 63 89
-2.38666 -1.34848 4.66259 126 108 128
-2.38666 -1.34848 4.66259 126 108 128
-2.3659 -0.425594 4.63094 128 107 112
-2.36372 -0.42544 4.62702 128 108 111
-2.36139 -0.391813 4.62676 128 120 125
-2.34693 -1.30906 4.66626 126 112 128
-2.33212 -0.888412 4.63778 112 102 116
-2.31196 -0.396055 4.62627 82 58 66
-2.31095 -1.21754 4.6573 128 120 128
-2.29344 -0.00731294 4.6117 68 44 53
-2.27783 0.611049 4.57734 128 119 125
-2.28346 -0.89141 4.63983 122 103 116
-2.28346 -0.89141 4.63983 122 103 116
-2.28073 -0.744873 4.63215 87 63 83
-2.28131 -0.745275 4.63416 87 63 83
-2.25028 0.91216 4.55618 84 68 72
-2.26572 -0.0038442 4.61491 86 69 74
-2.26999 -0.545702 4.62999 128 114 128
-2.27065 -0.957078 4.64383 79 52 67
-2.26598 -0.917867 4.64252 82 52 68
-2.24196 0.67276 4.57943 126 102 116
-2.2616 -1.07661 4.65209 86 61 67
-2.24043 0.113171 4.60796 70 54 64
-2.24032 0.00186229 4.60955 122 103 120
-2.24563 -0.537184 4.62945 102 74 91
-2.23233 -1.36591 4.67069 54 42 61
-2.20818 -0.201824 4.61616 82 58 72
-2.21067 -0.346778 4.62458 85 66 82
-2.19367 0.249947 4.5904 118 72 78
-2.20821 -1.03642 4.66208 76 54 79
-2.20821 -1.03642 4.66208 76 54 79
-2.20919 -1.17019 4.66725 52 40 54
-2.18335 0.141515 4.59803 128 107 115
-2.18334 -0.328258 4.62923 68 48 60
-2.19131 -1.03757 4.65583 76 55 66
-1.97442 1.02933 3.92838 122 128 113
-2.17608 -0.747332 4.6357 98 69 84
-2.12617 1.00676 4.48913 55 52 53
-2.15295 -0.87591 4.64178 116 92 100
-2.14282 -0.376605 4.63036 124 100 124
-2.1285 0.291091 4.58769 128 128 128
-2.13053 0.189218 4.59655 128 128 128
-2.14722 -1.31258 4.67366 84 66 80
-2.13435 -1.07047 4.65175 128 128 128
-2.136 -1.16168 4.66419 128 114 128
-2.12603 -0.367979 4.63598 56 34 46
-2.11264 0.155378 4.59807 114 84 100
-2.09734 -0.201403 4.63007 68 47 57
-2.10114 -0.761986 4.64066 76 50 68
-2.09757 -0.574344 4.63259 122 100 124
-2.06111 0.944716 4.53413 94 72 80
-2.06102 0.944608 4.53378 94 72 80
-2.1011 -1.25034 4.67888 65 50 76
-2.10353 -1.44348 4.68851 70 54 81
-2.06773 0.263433 4.5929 80 42 41
-1.8532 1.02526 3.76515 103 114 110
-2.07931 -0.709677 4.63832 128 104 128
-2.06758 0.128588 4.60797 112 96 112
-2.08349 -1.24828 4.67288 68 55 81
-2.07303 -0.743542 4.64249 127 104 125
-2.05136 -0.731347 4.64089 124 106 123
-2.0016 0.652079 4.58744 48 36 41
-2.00149 0.651674 4.58714 48 36 41
-1.99802 0.103932 4.61202 51 44 60
-1.99786 -0.332386 4.63251 60 46 62
-1.95467 1.05125 4.47612 34 26 24
-1.99375 -0.198177 4.63244 126 101 114
-1.99257 -1.0648 4.66278 68 56 73
-1.96715 -0.318586 4.63298 128 115 128
-1.96408 -0.0127761 4.62635 88 62 74
-1.96407 -0.0127204 4.6263 88 62 74
-1.96062 0.115968 4.6184 118 96 104
-1.93995 0.118514 4.61434 115 93 101
-1.92629 0.526885 4.59561 112 94 98
-1.93708 -0.868973 4.6597 112 91 108
-1.93913 -1.44605 4.68854 67 54 75
-1.91825 -0.382624 4.63337 128 108 128
-1.90947 0.228105 4.6163 112 94 104
-1.90933 -0.720236 4.65367 128 106 122
-1.91799 -1.4643 4.6972 72 56 64
-1.89386 -0.385255 4.63348 125 100 119
-1.84603 0.984469 4.50623 96 86 95
-1.8723 0.228678 4.61566 60 43 56
-1.87031 0.221117 4.61482 110 93 106
-1.85404 0.668074 4.60373 46 39 44
-1.8601 -0.0973356 4.6212 88 68 90
-1.88074 -1.4353 4.69672 76 58 90
-1.8574 -0.0912462 4.61918 119 106 128
-1.8574 -0.0912462 4.61918 119 106 128
-1.84718 0.763591 4.58944 54 44 62
-1.8607 -1.00366 4.65554 74 62 84
-1.85607 -0.408391 4.64775 50 40 54
-1.83323 -0.410786 4.64738 46 35 46
-1.82553 -0.0129334 4.63276 42 38 45
-1.83909 -1.25091 4.6895 124 102 114
-1.78927 0.306006 4.61193 46 35 50
-1.79282 -0.0202775 4.6298 39 32 42
-1.79905 -0.734712 4.65666 68 52 78
-1.79612 -0.725236 4.65515 128 114 128
-1.7793 0.3974 4.60356 58 40 56
-1.79972 -1.21781 4.67853 106 94 112
-1.8037 -1.41079 4.70164 56 42 54
-1.79445 -1.27246 4.68034 115 97 112
-1.779 -0.394125 4.63658 125 104 128
-1.76985 0.222486 4.61555 50 38 50
-1.75611 0.642056 4.61315 34 28 34
-1.76686 -0.797693 4.66698 73 51 65
-1.77198 -1.39836 4.69101 120 101 120
-1.76162 -1.43442 4.70186 60 49 70
-1.72745 0.924709 4.57658 56 44 42
-1.75642 -1.27196 4.68825 120 101 126
-1.75621 -1.27208 4.68742 120 101 126
-1.74759 -1.2034 4.67581 111 98 125
-1.74719 -1.20331 4.67496 111 98 125
-1.73794 -0.421589 4.64782 108 96 108
-1.72573 -0.00627869 4.62217 72 57 72
-1.72126 0.00955023 4.62444 118 100 118
-1.72126 0.0096087 4.62445 118 100 118
-1.73831 -1.23958 4.69251 82 62 78
-1.70511 0.921269 4.57886 44 39 35
-1.73145 -1.17343 4.68405 57 47 72
-1.73182 -1.2467 4.68735 128 124 128
-1.70414 0.63673 4.59241 38 31 42
-1.7094 -0.442926 4.64888 122 104 114
-1.69867 0.394128 4.61273 50 38 45
-1.71048 -0.736737 4.6661 110 96 114
-1.6895 0.212406 4.61402 48 43 54
-1.69873 -0.53509 4.65267 84 60 68
-1.68611 -0.0414812 4.6359 38 31 45
-1.67596 0.291352 4.61085 104 88 98
-1.67473 0.312776 4.61294 36 33 45
-1.6807 -0.574866 4.65942 54 40 54
-1.68392 -0.870676 4.67184 128 124 128
-1.67797 -0.555042 4.65753 127 110 127
-1.66799 0.409241 4.62416 106 90 93
-1.66973 -1.23746 4.68696 87 64 89
-1.66973 -1.23746 4.68696 87 64 89
-1.64636 -0.579214 4.65621 58 44 64
-1.62899 -0.738632 4.66948 54 36 54
-1.61559 -0.218928 4.64318 56 44 60
-1.61514 -0.578733 4.65723 62 46 65
-1.61172 -0.322625 4.64715 128 107 119
-1.59463 -0.322887 4.64385 85 68 85
-1.59476 -0.323532 4.64461 85 68 85
-1.60265 -1.05909 4.6868 72 52 62
-1.60631 -1.46485 4.70214 84 64 77
-1.59108 -0.325675 4.64494 61 46 66
-1.5093 0.914285 4.12974 42 35 44
-1.57461 -0.033515 4.62589 103 90 112
-1.57465 -0.0333492 4.62602 103 90 112
-1.58724 -1.23638 4.69078 70 47 64
-1.56963 -0.580065 4.66088 68 54 78
-1.54824 -0.228085 4.65131 112 98 108
-1.55503 -1.22538 4.68928 128 112 128
-1.46767 0.895798 4.14962 110 94 128
-1.54686 -0.897325 4.6752 67 53 66
-1.54842 -1.02908 4.68598 128 122 128
-1.53176 -0.892403 4.67006 117 104 117
-1.44692 0.915138 4.17295 96 80 101
-1.51977 -1.04102 4.6847 50 30 53
-1.52077 -1.4309 4.70006 69 50 74
-1.51238 -1.18495 4.69245 80 62 76
-1.49132 -0.731099 4.6685 69 56 88
-1.46764 -0.954204 4.68196 72 48 66
-1.45994 -0.934378 4.6816 56 38 54
-1.45797 -0.886281 4.68023 64 43 55
-1.45764 -0.957732 4.68243 119 102 120
-1.46113 -1.36866 4.7044 89 68 84
-1.45196 -0.936291 4.67802 76 66 78
-1.44749 -0.994432 4.68362 80 64 87
-1.4521 -1.42784 4.70635 61 52 62
-1.45006 -1.39719 4.70755 88 68 84
-1.44402 -1.00192 4.68243 125 110 128
-1.4315 -1.42937 4.69911 62 51 72
-1.36443 0.28919 4.19986 100 81 128
-1.37961 0.158943 4.35694 49 40 64
-1.42122 -1.41924 4.70194 128 123 128
-1.38712 -0.203969 4.61967 50 42 86
-1.33021 0.815865 4.17073 34 34 42
-1.37949 -1.16375 4.6923 58 46 63
-1.37765 -1.10124 4.69704 80 52 70
-1.3554 -1.14598 4.68827 124 110 128
-1.35518 -1.14652 4.6913 124 109 128
-1.27131 0.905493 4.15088 52 45 57
-1.27722 0.266661 4.29794 58 56 84
-1.31256 -0.874198 4.68599 51 39 63
-1.25398 0.842229 4.17261 23 24 26
-1.2987 -1.02992 4.68793 75 62 88
-1.26114 0.0735726 4.38382 76 56 96
-1.26531 0.0554401 4.43445 107 86 128
-1.28274 -1.15823 4.69648 78 64 94
-1.22829 0.905428 4.15263 44 38 54
-1.23202 0.476842 4.19793 59 56 82
-1.23254 0.348777 4.20275 91 81 126
-1.26677 -0.72039 4.66884 50 37 60
-1.24309 -0.114867 4.46648 31 30 68
-1.26331 -1.02539 4.69025 65 52 76
-1.26331 -1.02539 4.69025 65 52 76
-1.20867 0.841701 4.17212 25 23 24
-1.20866 0.841816 4.17199 25 23 24
-1.25155 -0.720487 4.67276 54 40 64
-1.21299 0.331928 4.20648 96 84 128
-1.20042 0.720413 4.17713 26 23 48
-1.19746 0.755754 4.17788 26 21 44
-1.23863 -0.576005 4.67491 76 58 76
-1.2426 -1.31592 4.70632 128 114 128
-1.23788 -1.26007 4.70575 128 114 128
-1.2288 -0.858054 4.68122 128 108 126
-1.22751 -1.24394 4.70767 74 48 60
-1.22839 -1.38616 4.71133 89 71 89
-1.22657 -1.34355 4.71168 89 64 80
-1.22657 -1.34355 4.71168 89 64 80
-1.21611 -1.24989 4.70569 124 104 126
-1.20977 -1.41372 4.71259 74 58 79
-1.19275 -1.16777 4.69674 70 60 84
-1.17358 -0.0280056 4.4932 30 24 52
-1.1741 -0.0275842 4.49598 30 24 52
-1.15487 0.315061 4.20675 108 88 128
-1.16442 -0.119415 4.47526 70 62 113
-1.15366 0.265383 4.32587 62 54 75
-1.17383 -1.24329 4.70337 126 112 128
-1.16804 -1.43852 4.71327 67 52 76
-1.16487 -1.45639 4.71358 118 102 128
-1.12685 0.448623 4.20844 51 38 70
-1.15321 -0.872765 4.69437 52 38 54
-1.12407 -1.23971 4.70619 69 56 78
-1.12625 -1.51298 4.71369 128 111 128
-1.12301 -1.31372 4.70473 86 68 100
-1.09085 0.415383 4.20701 40 34 57
-1.0941 -0.399441 4.43121 59 42 86
-1.10833 -1.49247 4.71702 128 118 128
-1.09946 -0.743493 4.68778 86 76 86
-1.0705 0.302374 4.21577 102 88 128
-1.07943 0.0966711 4.49309 32 22 52
-1.08443 -1.42224 4.70954 128 122 128
-1.06394 0.031874 4.51431 30 24 46
-1.07837 -1.43619 4.72445 102 74 90
-1.05477 -0.461672 4.47771 42 34 80
-1.06589 -1.45477 4.73013 128 118 128
-1.06589 -1.45477 4.73013 128 118 128
-1.04566 0.00636102 4.46849 33 26 66
-1.04421 -0.269712 4.49068 40 32 80
-1.02717 0.415939 4.20806 45 40 59
-1.03199 -0.450603 4.49414 41 32 72
-1.02816 -0.474096 4.49508 42 32 69
-1.03619 -1.45748 4.72732 88 68 94
-1.01443 0.0952823 4.49978 40 30 58
-0.998425 -0.52425 4.50339 31 26 68
-0.980661 -1.44071 4.71904 91 75 98
-0.937907 -0.587906 4.50111 64 58 108
-0.940961 -1.44444 4.73279 78 52 76
-0.937038 -0.935211 4.43492 68 60 100
-0.935572 -0.701863 4.43452 89 77 128
-0.931012 -1.43015 4.71916 128 114 128
-0.91974 -0.111998 4.506 30 25 55
-0.925027 -1.4396 4.72604 80 52 74
-0.916621 -0.152853 4.50344 45 36 70
-0.905556 0.333348 4.2193 96 86 128
-0.905556 0.333348 4.2193 96 86 128
-0.907079 -1.41025 4.72254 60 36 52
-0.90431 -0.714421 4.4272 94 82 128
-0.890809 0.0172097 4.50169 37 27 54
-0.882552 0.34688 4.218 108 90 128
-0.867579 -0.0994436 4.45241 79 72 126
-0.870356 -0.768357 4.46858 48 32 70
-0.85891 0.342182 4.22195 58 42 80
-0.856943 -0.20763 4.49397 62 57 105
-0.854171 -0.911875 4.45597 30 29 59
-0.80201 -0.983088 4.4478 84 70 126
-0.761591 0.087215 4.50823 38 30 54
-0.731103 -1.08987 4.45323 90 72 124
-0.691066 -0.217007 4.51737 38 31 56
-0.699891 -1.11661 4.4521 22 18 34
-0.68778 0.0667204 4.5049 34 28 50
-0.675457 -0.37033 4.5217 36 28 50
-0.669842 -0.198699 4.52135 38 29 55
-0.680676 -1.1339 4.44106 78 66 105
-0.712341 0.897347 3.2357 36 30 50
-0.627338 0.187247 4.36713 118 102 128
-0.579551 -0.404367 4.42371 29 20 44
-0.577039 -1.19873 4.35417 86 70 120
-0.555645 -0.454862 4.40898 95 74 106
-0.42021 -0.14883 5.66136 54 40 76
-0.530033 -0.0509935 4.41029 44 35 60
-0.53002 -0.265345 4.42077 32 24 48
-0.524549 0.105993 4.40413 38 30 58
-0.378609 -0.354969 5.66106 39 34 76
-0.499387 0.108249 4.40683 98 84 128
-0.498574 -0.000745828 4.40564 112 100 128
-0.507425 -1.10171 4.32633 104 90 128
-0.496441 -0.77905 4.38122 32 30 66
-0.497092 -0.963131 4.33667 42 32 80
-0.498052 -1.06739 4.33475 81 66 112
-0.473896 -0.179292 4.41575 42 34 56
-0.469961 0.0234322 4.41053 36 27 52
-0.467528 -0.392795 4.43146 38 28 57
-0.479151 -1.06118 4.34709 36 29 61
-0.46452 -1.10642 4.3497 42 35 71
-0.453568 0.497301 4.16476 58 50 70
-0.428333 -1.00676 4.37745 34 26 66
-0.416003 0.41288 4.2347 64 46 84
-0.415984 0.412813 4.23361 64 46 84
-0.413426 -1.05837 4.34656 78 64 111
-0.413426 -1.05837 4.34656 78 64 111
-0.364934 -0.686394 4.44101 20 18 44
-0.347726 0.0177743 4.39166 40 43 68
-0.32847 -0.366233 4.42144 47 42 82
-0.346299 0.31119 4.24089 62 44 71
-0.318834 -0.391488 4.42492 128 128 128
-0.307529 -0.313255 4.42051 105 124 128
-0.294773 -0.44574 4.43275 128 128 128
-0.304016 -1.248 4.38142 107 84 115
-0.288856 -0.329453 4.4237 102 128 128
-0.288863 -0.329347 4.42298 102 128 128
-0.290782 0.00763438 4.32328 44 41 60
-0.290784 0.00779517 4.32307 44 41 60
-0.276547 -0.791183 4.44385 32 26 56
-0.274503 -0.105399 4.38925 46 58 90
-0.267885 -0.475034 4.44191 63 52 99
-0.260088 -0.562764 4.44505 86 109 126
-0.259267 -0.471505 4.44524 127 128 128
-0.267331 -0.0186539 4.29424 120 128 128
-0.236206 -0.784443 4.45525 22 21 52
-0.224205 -0.567743 4.48197 68 90 110
-0.236061 -0.372743 4.36387 124 128 128
-0.245221 -0.0194855 4.28744 90 115 128
-0.221394 -0.41238 4.38771 128 128 128
-0.222431 -0.329559 4.35254 117 128 128
-0.206395 -0.576587 4.43181 32 26 60
-0.200053 -0.593968 4.43674 19 18 38
-0.208215 0.327151 4.24094 54 42 69
-0.200392 -0.119578 4.29264 104 102 110
-0.196576 -0.104195 4.28412 96 95 105
-0.175438 -0.607533 4.4258 36 32 67
-0.18197 -0.275859 4.36171 128 128 128
-0.181882 -0.276142 4.36074 128 128 128
-0.172047 -0.987058 4.41932 111 92 128
-0.163971 -0.257873 4.36045 80 98 122
-0.145285 -0.793786 4.45062 78 68 119
-0.137203 -0.3941 4.46519 128 128 128
-0.14298 -0.814485 4.44687 30 25 56
-0.141196 -0.878152 4.45323 48 38 80
-0.137799 -0.486517 4.44504 29 27 62
-0.137475 -0.485791 4.43442 28 27 61
-0.160895 -0.108628 4.28336 128 128 128
-0.131703 -0.577995 4.44456 28 28 61
-0.122642 -0.389552 4.46154 128 128 128
-0.156803 -0.0525579 4.24611 84 98 110
-0.100525 -0.330292 4.44801 128 128 128
-0.0761873 -0.191662 4.50968 37 36 74
-0.0873654 -0.771769 4.45283 78 69 121
-0.0769356 -0.791919 4.45105 34 28 58
-0.0616433 -0.944081 4.45374 46 37 69
-0.0617648 -0.944315 4.45311 46 37 69
-0.0806683 -0.00614007 4.28872 128 128 128
-0.0647322 -1.50897 4.36489 48 31 78
-0.0600206 0.339251 4.25038 62 46 80
-0.0230075 -0.748175 4.44992 34 28 56
-0.00932161 0.0165149 4.34802 128 128 128
-0.00244856 -0.00214121 4.34565 128 128 128
0.0014189 0.0450105 4.35236 38 34 54
0.0456931 -0.098967 4.42728 96 84 128
0.00920437 0.461255 4.24259 74 62 98
0.0477597 -0.63776 4.43769 84 72 128
0.016064 0.398729 4.24149 62 47 76
0.0362195 -0.579456 4.36225 90 74 119
0.0669312 -0.116414 4.42926 40 33 62
0.0670319 -0.115579 4.43008 40 33 62
0.0763236 0.0197458 4.42524 33 24 56
0.0399933 -1.40624 4.29947 32 27 50
0.085519 -0.459611 4.42721 94 75 106
0.0854324 -0.459729 4.42637 94 75 106
0.0923168 -0.2604 4.43558 86 74 128
0.111763 -0.265115 4.4369 36 28 58
0.0870621 -1.09635 4.34969 44 24 74
0.0953236 -0.981908 4.37135 103 86 128
0.0982995 -1.03023 4.384 82 69 118
0.10758 -1.50397 4.34693 31 22 52
0.114807 -1.0905 4.34791 51 41 78
0.130634 -1.25414 4.394 109 88 128
0.134741 -1.04994 4.36506 36 32 64
0.167906 -0.337258 4.44252 62 48 79
0.171817 0.0201796 4.42837 35 26 54
0.129275 0.464213 4.22892 116 98 128
0.144919 -1.09679 4.34374 116 100 128
0.186018 0.0400158 4.4438 50 37 70
0.186018 0.0400158 4.4438 50 37 70
0.162952 -0.929325 4.37132 106 88 128
0.171131 -1.06652 4.36128 38 26 64
0.14697 -1.44836 4.28223 34 30 65
0.188575 -1.25747 4.3913 107 88 128
0.167484 0.330672 4.25323 110 94 128
0.208905 -1.05662 4.36572 36 32 70
0.229937 0.32747 4.25952 52 38 66
0.247208 -1.09575 4.36802 122 104 128
0.33826 -0.944658 4.55264 72 65 105
0.352413 -0.928102 4.55325 76 64 102
0.394329 -0.282028 4.55643 58 44 78
0.406636 -0.109217 4.54849 31 24 44
0.326218 0.312222 4.26597 52 45 63
0.409353 -0.152839 4.54594 36 28 55
0.34935 -1.42325 4.37251 70 59 108
0.397657 -1.18413 4.48039 48 35 72
0.430566 -0.152169 4.50631 108 94 128
0.447497 0.0318286 4.54573 39 28 60
0.443652 -0.763063 4.55378 99 84 119
0.446378 -0.721488 4.55146 90 78 122
0.46323 -0.207613 4.53943 62 52 96
0.477528 -0.476332 4.50894 88 80 124
0.485656 -0.144013 4.48102 62 48 100
0.420358 0.44046 4.26042 46 38 64
0.508923 -0.299883 4.55464 48 39 68
0.420587 0.441022 4.25978 44 37 64
0.426269 0.326444 4.26479 110 91 128
0.447532 0.404301 4.25911 80 68 99
0.447572 0.404445 4.25934 80 68 99
0.613097 -1.34792 4.76624 86 59 94
0.628344 -1.67899 4.7836 82 64 90
0.656667 -1.44403 4.7733 88 63 82
0.677285 -1.4277 4.7688 120 104 115
0.520398 0.330638 4.26555 104 92 128
0.556494 -1.05955 4.41077 108 92 128
0.680207 -1.42681 4.77009 110 94 100
0.637807 -0.0965488 4.55648 46 34 66
0.578899 -1.05647 4.40109 32 27 63
0.715508 -1.60377 4.78652 75 52 71
0.719393 -1.5723 4.78027 92 68 92
0.719393 -1.5723 4.78027 92 68 92
0.582456 -1.06838 4.3841 112 95 128
0.720595 -1.52536 4.77457 91 66 86
0.775616 -1.25398 4.77397 128 122 128
0.707526 -0.230108 4.54154 72 66 114
0.717706 -0.214086 4.54169 73 64 116
0.662995 0.309589 4.27541 52 34 70
0.734112 -0.4944 4.48439 37 31 66
0.839894 -0.9123 4.75747 128 125 128
0.84534 -1.05574 4.76557 128 123 128
0.855647 -1.37434 4.7767 70 58 86
0.87503 -1.44008 4.78496 90 64 80
0.884703 -0.582905 4.74161 128 115 128
0.89543 -0.59012 4.74221 84 70 106
0.724227 0.28688 4.27284 90 72 107
0.904687 -0.572349 4.74201 90 72 112
0.736586 0.299684 4.26738 110 94 128
0.931506 -0.86124 4.75468 90 62 90
0.939705 -1.61357 4.79322 90 65 82
0.749324 0.401256 4.26663 98 86 128
0.950017 -1.44708 4.78883 128 128 128
0.948897 -0.834858 4.75577 109 83 99
0.953148 -0.972515 4.75432 92 72 100
0.8719 0.132588 4.49492 44 38 88
0.786916 0.443039 4.27092 44 36 63
0.786916 0.443039 4.27092 44 36 63
0.99066 -1.74765 4.78992 107 84 111
0.864761 0.193048 4.40716 40 36 88
0.898072 0.0469148 4.47702 118 100 128
0.869847 0.206167 4.39512 128 114 128
0.901366 0.0640899 4.45743 127 108 128
0.900343 0.163069 4.44641 128 110 128
0.887706 0.194044 4.40025 63 52 98
0.915468 0.156137 4.4368 116 98 128
0.407449 0.872233 3.24041 128 128 128
1.04402 -0.901146 4.76478 128 126 128
0.872395 0.426297 4.27452 75 60 95
1.08194 -1.66979 4.79603 128 124 128
0.972362 -0.142178 4.47583 33 30 72
0.946581 0.20924 4.39986 120 104 128
0.89673 0.358138 4.28083 42 36 56
0.991897 0.0479411 4.46699 64 52 82
1.11799 -0.880163 4.76339 102 70 86
1.12172 -0.887989 4.76348 128 121 128
1.1203 -0.566214 4.74904 128 128 128
1.13535 -0.574499 4.75252 86 61 92
1.15063 -1.07231 4.77822 88 66 98
1.17856 -0.901101 4.76499 63 51 66
1.18652 -1.08577 4.77646 126 110 128
1.18735 0.070074 4.7236 88 72 98
1.00471 0.402434 4.28153 70 56 93
1.22178 -1.20349 4.78081 76 64 89
1.2218 -1.10473 4.77875 76 67 80
1.2483 -1.06795 4.77732 88 64 86
1.24682 -0.776339 4.76487 128 116 128
1.25313 -1.35424 4.78439 128 123 128
1.25321 -1.35459 4.78432 128 123 128
1.24212 0.174174 4.71537 79 58 82
1.27445 -1.07926 4.7835 128 116 128
1.27993 -1.58853 4.79762 128 125 128
1.2792 0.193082 4.71829 74 60 85
1.3014 -1.10468 4.77389 128 120 128
1.31792 -0.727398 4.76845 128 106 114
1.3288 -0.736863 4.76913 62 41 60
1.08522 0.900974 4.23073 106 83 128
1.33261 -1.20806 4.78397 74 59 84
1.32174 0.241959 4.71174 128 128 128
1.33826 -0.943481 4.77537 72 52 70
1.33527 -0.474251 4.74896 86 66 96
1.34407 -0.408288 4.76425 62 50 60
1.35019 -1.64648 4.80492 90 67 87
1.34794 -0.301105 4.7474 128 113 128
1.36537 -1.37492 4.79972 75 56 76
1.34624 0.186914 4.71608 128 114 128
1.35096 0.20208 4.72087 73 63 88
1.12731 0.584133 4.25982 34 33 54
1.3517 0.23642 4.7135 86 66 90
1.36151 -0.388599 4.73945 84 59 83
1.38983 -1.76659 4.80574 95 66 78
1.37691 0.376549 4.72019 56 34 48
1.37402 0.170969 4.71622 71 54 76
1.38894 0.211287 4.73416 57 46 59
1.39544 -1.22716 4.78564 128 120 128
1.39544 -1.22716 4.78564 128 120 128
1.39214 -0.905002 4.77072 78 59 90
1.37434 0.754737 4.68765 122 101 127
1.38695 0.198676 4.72254 114 102 118
1.38597 0.0957416 4.71913 96 82 111
1.15742 0.54404 4.24986 38 37 68
1.39497 0.241349 4.71535 128 115 128
1.39763 0.325832 4.71194 119 104 128
1.41047 0.056578 4.73362 128 116 125
1.41997 -0.0270539 4.73463 98 74 92
1.42471 -0.432517 4.74795 128 108 128
1.44376 -1.07229 4.78524 128 127 128
1.45971 -1.26812 4.789 72 58 76
1.45927 0.221898 4.72675 128 124 128
1.46487 -0.569785 4.75534 87 66 94
1.47426 0.123339 4.71965 128 128 128
1.47858 0.385911 4.71312 108 76 89
1.49032 0.20638 4.72468 57 42 58
1.49032 0.20638 4.72468 57 42 58
1.5051 -0.905671 4.78161 68 56 76
1.50368 -0.905097 4.77834 68 56 76
1.4997 0.177249 4.71856 128 118 128
1.52132 -0.904881 4.77634 75 62 78
1.52196 -0.735942 4.77242 71 56 76
1.51242 0.881915 4.68677 95 80 110
1.51402 0.88243 4.69047 95 80 110
1.51833 0.532954 4.70611 128 128 128
1.54099 -0.891343 4.7764 73 55 70
1.54617 -1.21509 4.78493 128 113 128
1.53226 0.832703 4.70032 128 118 128
1.54 -0.210144 4.74374 128 127 128
1.54 -0.210144 4.74374 128 127 128
1.52706 0.847017 4.68821 112 82 98
1.52759 0.808038 4.68848 45 34 50
1.55524 -1.15404 4.78501 94 70 84
1.55511 -1.15393 4.78472 94 70 84
1.55553 -1.22551 4.78155 86 62 78
1.55959 -1.24111 4.78434 128 122 128
1.56456 -1.33553 4.79285 96 68 96
1.56318 -0.729365 4.77276 68 54 70
1.5628 -0.808627 4.77185 89 65 79
1.54648 0.604873 4.69552 128 128 128
1.55321 0.665376 4.70017 128 128 128
1.57171 -0.40675 4.75956 62 49 65
1.57076 -0.406414 4.75668 62 49 65
1.57425 0.733399 4.696 84 66 89
1.58009 0.263878 4.71387 126 111 128
1.58009 0.263878 4.71387 126 111 128
1.58111 0.815254 4.69583 70 59 78
1.59033 0.648367 4.7088 68 50 65
1.61479 -1.69776 4.81051 90 64 87
1.5993 -0.0354689 4.73722 128 114 128
1.60757 -0.447529 4.75217 92 76 104
1.59814 0.785554 4.69248 124 110 128
1.6301 -1.38831 4.79827 84 62 90
1.64363 -1.76465 4.81766 88 62 76
1.64363 -1.76465 4.81766 88 62 76
1.6312 -0.518598 4.75912 128 116 128
1.62891 -0.0584704 4.74295 64 54 73
1.64226 -1.08126 4.78008 76 56 70
1.64439 -0.896404 4.77513 90 73 104
1.6586 -1.26813 4.80281 76 52 68
1.65593 -1.48857 4.79362 128 124 128
1.65147 -0.0207744 4.73239 128 118 128
1.66454 -0.217421 4.75831 55 45 66
1.66701 -0.20034 4.73918 118 102 122
1.66912 0.451009 4.71305 60 44 62
1.70063 -1.07767 4.77997 83 72 86
1.70361 0.236963 4.7233 128 116 128
1.65914 0.959621 4.6131 86 65 78
1.65914 0.959621 4.6131 86 65 78
1.71619 0.81402 4.70689 128 110 126
1.71577 0.855716 4.70021 128 126 128
1.73625 -0.212162 4.75672 68 54 75
1.73625 -0.212162 4.75672 68 54 75
1.74208 -1.07142 4.78678 64 49 61
1.7718 -1.44816 4.80488 90 63 84
1.75545 0.381207 4.73053 63 48 72
1.76527 0.191116 4.73171 80 70 97
1.78337 -0.890248 4.78123 80 60 86
1.80306 -0.892165 4.7816 73 50 74
1.79613 0.201408 4.73586 122 108 128
1.8172 -0.911655 4.79056 128 120 128
1.81836 -0.408004 4.7637 58 47 70
1.83964 -0.726408 4.7731 70 58 78
1.84299 -0.936113 4.78272 126 108 128
1.82832 0.803017 4.69898 128 126 128
1.84356 0.387192 4.73016 75 49 70
1.84338 0.387199 4.72995 75 49 70
1.84823 -0.227977 4.75048 83 72 96
1.83681 0.688038 4.69761 89 74 98
1.85496 0.239103 4.73263 124 105 128
1.89037 -1.63486 4.81923 66 49 66
1.88532 -0.385927 4.76858 66 50 72
1.88675 -0.0149667 4.74799 128 114 128
1.88866 -0.232187 4.75576 68 52 71
1.89499 -0.352856 4.76043 90 66 86
1.88547 0.260126 4.72792 82 64 93
1.90128 -1.17411 4.78888 98 72 102
1.89585 -0.250894 4.75297 128 118 128
1.89639 -0.25035 4.75424 128 118 128
1.90606 -1.07824 4.78765 85 62 73
1.90006 -0.00154404 4.74766 128 128 128
1.88415 0.800288 4.70013 128 128 128
1.90287 -0.290236 4.7577 84 65 88
1.90739 -1.14638 4.78617 106 84 110
1.89112 0.834062 4.70095 56 41 48
1.91418 -0.0454328 4.75072 60 47 58
1.91839 0.0167495 4.74298 84 66 86
1.91839 0.0167495 4.74298 84 66 86
1.91979 -0.00890375 4.74527 80 58 80
1.92001 -0.00900919 4.74569 80 58 80
1.90608 0.797245 4.69915 128 128 128
1.94579 -1.44717 4.81105 84 66 86
1.95695 -1.69862 4.82281 100 72 92
1.93291 0.806984 4.71215 126 110 128
1.93051 0.734368 4.71062 93 71 96
1.95202 -0.728402 4.77705 83 67 94
1.94612 0.38405 4.72606 82 59 83
1.94612 0.38405 4.72606 82 59 83
1.94937 0.506887 4.71525 64 48 68
1.95664 0.836749 4.70559 128 110 114
1.99305 0.538032 4.7194 82 64 88
1.99632 0.571785 4.71952 82 62 85
2.00373 0.52152 4.71342 128 122 128
2.02669 -0.383415 4.75769 128 128 128
2.03862 -1.10165 4.79204 98 73 93
2.02353 0.821298 4.7062 68 53 74
2.06213 -1.62734 4.81822 94 64 88
2.04488 -0.361902 4.75845 128 118 128
2.05257 -0.0163267 4.74689 96 77 102
2.05242 0.396678 4.72672 128 123 128
2.06537 -0.0603594 4.74561 102 80 102
2.01847 0.974297 4.61698 112 102 119
2.01971 1.081 4.61469 102 89 108
2.0273 0.998734 4.61593 128 117 127
2.05929 0.988795 4.61293 128 128 128
2.11938 0.896687 4.68092 128 128 128
2.13751 0.81981 4.70207 103 96 117
2.20435 0.919308 4.67378 128 128 128
2.17724 1.02708 4.61479 128 128 128
2.1775 1.02662 4.61522 128 128 128
2.19515 0.948285 4.62297 128 128 128
-2.45725 -1.3297 4.65851 84 66 88
-2.40213 0.402073 4.57895 128 123 128
-2.4179 -0.462604 4.62234 128 108 126
-2.38236 -0.545448 4.62703 128 114 128
-2.35621 0.647407 4.56407 128 116 116
-2.34251 0.650896 4.56557 77 57 65
-2.32252 0.648716 4.56944 128 114 123
-2.32543 -1.37783 4.67166 111 103 120
-2.30092 -0.201456 4.61459 74 54 66
-2.28961 -0.56597 4.62761 127 108 124
-2.26942 -0.892822 4.64148 74 48 58
-2.26639 -0.860427 4.63951 122 101 114
-2.24855 -1.32408 4.66672 86 76 90
-2.22457 -0.407439 4.62546 128 112 126
-2.23839 -1.16776 4.66678 52 40 54
-2.20001 0.398155 4.58236 128 112 126
-2.22889 -1.20582 4.67152 120 99 122
-2.22889 -1.20582 4.67152 120 99 122
-2.20632 -1.37311 4.66718 120 113 128
-2.18026 -0.0109813 4.61377 84 60 74
-2.19354 -1.32562 4.67369 86 82 102
-2.19354 -1.32562 4.67369 86 82 102
-2.12599 1.00638 4.48738 57 52 54
-2.15364 0.445494 4.58488 128 116 127
-2.16233 -0.549961 4.63208 128 120 128
-2.16117 -1.34421 4.66611 126 114 128
-2.12279 0.916574 4.56781 72 55 60
-2.12916 0.291713 4.58942 128 128 128
-2.14298 -1.02667 4.65784 128 112 124
-2.14124 -1.05017 4.65537 114 106 121
-2.09517 0.912434 4.56736 64 54 63
-2.12011 -1.26448 4.67331 63 48 61
-2.09115 0.215671 4.59319 54 29 23
-2.06281 0.803195 4.57878 56 45 54
-2.0298 0.390647 4.59704 119 106 114
-2.01802 0.10163 4.6091 54 44 56
-1.96528 0.146281 4.60493 128 116 128
-1.94334 0.517462 4.5955 57 41 44
-1.94283 0.517343 4.59443 57 41 44
-1.92881 0.405781 4.6074 54 40 50
-1.91893 -0.412125 4.6346 108 98 118
-1.89064 0.101996 4.61442 52 40 52
-1.87574 0.647815 4.59782 48 36 49
-1.846 0.984288 4.50562 96 87 94
-1.87481 -0.402616 4.64231 50 37 50
-1.87475 -0.402859 4.64329 50 37 50
-1.86626 -1.18266 4.66884 60 50 74
-1.82273 -0.747338 4.65406 118 100 122
-1.79823 -0.576762 4.6566 66 47 60
-1.7589 0.244058 4.61506 115 96 112
-1.76016 -1.42415 4.69838 107 94 101
-1.70636 -1.43268 4.70247 74 56 76
-1.66525 -0.576972 4.65686 57 40 60
-1.58538 -1.2063 4.69064 128 113 128
-1.55466 -0.724183 4.66403 88 62 85
-1.53811 -0.986615 4.67999 76 59 72
-1.52204 -0.701836 4.6666 82 68 88
-1.48506 -0.885458 4.67586 64 44 58
-1.39322 0.796745 4.15878 31 28 39
-1.43405 -0.559281 4.65584 128 124 128
-1.36316 0.265683 4.28672 54 56 78
-1.40557 -1.23957 4.70065 54 44 60
-1.36538 -1.04499 4.68881 125 109 128
-1.17334 -0.0267228 4.48926 33 26 54
-1.14049 -1.44156 4.72349 68 53 84
-1.10826 -1.49328 4.71588 128 116 128
-1.00276 0.443622 4.21237 47 36 66
-0.806569 0.0364086 4.50991 36 28 60
-0.808688 -0.378658 4.52416 39 32 58
-0.809384 -0.739166 4.54163 46 34 70
-0.554699 -1.41885 4.26818 84 72 126
-0.496871 -1.10953 4.33681 102 84 128
-0.496871 -1.10953 4.33681 102 84 128
-0.286353 -1.50801 4.35503 52 32 76
-0.250834 0.031982 4.32356 82 98 112
-0.262642 -1.40615 4.29582 32 26 46
-0.188836 -0.561768 4.42695 60 80 108
-0.10228 -1.50578 4.36018 48 26 80
-0.102307 -1.50563 4.35994 48 26 80
-0.0232548 0.00758866 4.35499 74 66 89
0.00280996 0.0450649 4.36546 38 33 55
0.00346325 -1.4204 4.28836 90 74 112
0.00346325 -1.4204 4.28836 90 74 112
0.0620592 -0.403078 4.44051 34 24 56
0.146422 -0.000345859 4.41951 124 112 128
0.311155 0.325808 4.26384 115 96 128
0.431251 -0.596922 4.56721 44 35 78
0.439985 -0.298993 4.55367 43 34 60
0.44745 0.0314807 4.54473 41 32 64
0.472187 -0.142435 4.48025 60 47 102
0.479665 -0.124437 4.47936 56 41 90
0.479609 -0.124506 4.47932 56 41 90
0.509214 -0.299991 4.55811 50 40 68
0.510156 -0.300019 4.5565 50 40 68
0.532038 0.00856069 4.55343 50 39 74
0.615531 -0.076716 4.55752 43 32 66
0.732518 -1.50949 4.77698 76 55 79
0.582405 0.327348 4.2684 58 46 79
0.791002 -1.50356 4.77522 92 70 100
0.791014 -1.50356 4.77515 92 70 100
0.826379 -1.36624 4.77595 86 77 98
0.844376 -1.62298 4.79059 78 54 77
0.85399 -1.18752 4.76266 89 72 100
0.854793 -1.18843 4.76569 89 72 100
0.860804 -1.5207 4.77748 96 72 102
0.860804 -1.5207 4.77748 96 72 102
0.885583 -1.06668 4.76488 79 64 94
0.886922 -0.695062 4.74525 96 66 92
0.910655 -1.25561 4.77657 98 74 102
0.939971 -1.61393 4.79466 92 64 81
0.967678 -1.44136 4.77855 92 66 94
0.973437 -1.35152 4.77544 90 79 104
0.971296 -0.878761 4.75514 72 58 72
1.01038 -1.65863 4.79293 106 88 116
1.06342 -0.567776 4.75565 128 128 128
0.986812 0.11843 4.45482 46 42 76
1.21825 -1.11886 4.77763 83 65 87
1.22721 -0.88989 4.77097 64 50 65
1.01233 0.337808 4.2811 52 38 70
1.02719 0.309833 4.28594 52 38 62
1.24792 -0.868086 4.7752 101 76 88
1.27837 -1.12513 4.77521 95 79 117
1.29446 -0.41141 4.74938 56 45 72
1.3236 -1.25128 4.78675 128 122 128
1.3258 -0.225102 4.73164 118 106 127
1.34557 -1.31241 4.78478 93 70 98
1.34927 0.0571321 4.72497 76 61 84
1.38531 -1.27662 4.78894 128 113 128
1.39447 -0.0606023 4.73645 72 56 74
1.42028 -0.027291 4.73509 99 76 94
1.43731 -0.635555 4.75989 78 60 78
1.42831 0.125883 4.71744 84 72 100
1.42831 0.125883 4.71744 84 72 100
1.42107 0.875132 4.68449 128 114 128
1.43461 0.207593 4.72654 43 32 40
1.45443 -0.896851 4.77585 128 116 124
1.47152 -1.47384 4.79705 128 123 128
1.4648 0.0680928 4.73283 80 60 84
1.50245 -1.32636 4.79048 94 65 94
1.51029 -0.222034 4.75124 78 60 85
1.53078 -1.20024 4.79052 72 49 65
1.52946 -0.406789 4.75834 52 46 68
1.52857 -0.0714501 4.73599 68 55 80
1.54174 -0.882861 4.77959 128 120 122
1.54621 -1.21475 4.78476 127 112 128
1.53214 0.832744 4.70099 128 118 128
1.52689 0.846999 4.68881 107 76 94
1.55523 -0.83583 4.77021 94 72 85
1.5653 -1.35315 4.7928 128 118 128
1.57135 -1.43641 4.79552 128 112 128
1.55907 -0.0663405 4.73542 72 60 84
1.57145 -0.406323 4.75717 64 50 66
1.60402 -1.37262 4.8012 74 56 84
1.58433 0.238333 4.72375 128 117 128
1.59347 0.6683 4.69862 128 114 128
1.64456 -1.44655 4.80372 66 39 58
1.68143 -1.42169 4.79998 128 115 128
1.6892 -0.0152156 4.73709 128 128 128
1.70604 -0.57809 4.77044 71 56 86
1.65901 0.959155 4.61302 85 64 77
1.71325 0.812685 4.70185 128 107 124
1.71584 0.855646 4.7004 128 126 128
1.72347 0.743808 4.69903 128 111 128
1.72347 0.743808 4.69903 128 111 128
1.75871 -0.983355 4.78712 84 69 96
1.75927 -0.894766 4.78422 76 53 74
1.74428 0.495041 4.71398 128 112 128
1.74929 0.0683627 4.73242 89 64 87
1.77237 -1.06389 4.78896 128 116 128
1.76468 -0.399162 4.75588 128 118 128
1.75425 0.738297 4.69878 128 126 128
1.75949 0.781816 4.69686 93 70 92
1.79499 -1.62774 4.81412 80 50 73
1.77024 0.514863 4.71596 78 64 78
1.80906 0.640485 4.71844 68 55 74
1.81554 -0.559167 4.75823 128 106 122
1.82018 0.490785 4.71259 128 122 128
1.82813 0.802911 4.69941 128 125 128
1.86674 -0.705579 4.77282 128 115 128
1.87136 -0.575395 4.77351 90 64 92
1.86878 -0.242641 4.75162 128 128 128
1.87232 0.225698 4.73188 128 121 128
1.90503 -1.44292 4.81415 71 57 59
1.90477 -1.64361 4.81557 127 108 122
1.89246 -0.484227 4.7622 94 72 100
1.88405 0.800215 4.70045 128 128 128
1.9117 -0.265661 4.75725 83 64 80
1.96561 -1.63097 4.82208 92 62 75
1.94816 0.375865 4.72366 128 122 128
1.95633 0.18016 4.73194 128 128 128
1.98968 0.212092 4.72742 96 72 99
2.02102 0.634692 4.71127 122 113 128
2.01826 0.974151 4.61608 112 102 119
2.01954 1.08088 4.61446 102 89 106
2.02731 0.998447 4.61517 128 116 125
2.03542 0.981251 4.61648 45 24 16
2.05933 0.98827 4.61299 128 128 128
2.12596 0.646406 4.70802 58 46 72
2.12596 0.646406 4.70802 58 46 72
2.07397 1.03346 4.61402 128 128 128
2.07393 1.03292 4.61379 128 128 128
2.11936 0.896596 4.68134 128 128 128
2.17212 1.09665 4.611 76 68 68
2.17654 1.02576 4.61385 128 128 128
2.19514 0.948184 4.62296 128 128 128
-1.49909 0.987883 3.02779 128 128 128
-1.84545 1.0289 3.85457 128 128 128
-0.665107 0.869138 3.19936 128 128 128
-0.657286 0.892664 3.19615 128 128 128
-0.649037 1.0022 3.18849 128 128 128
-0.649037 1.0022 3.18849 128 128 128
-0.657906 0.849105 3.23683 128 128 128
-0.621489 0.891209 3.19692 128 128 128
-0.601468 0.732997 3.25195 128 128 128
-0.601622 0.661126 3.25673 128 128 128
-0.601622 0.661126 3.25673 128 128 128
-0.598809 0.788826 3.25201 128 128 128
-0.598809 0.788826 3.25201 128 128 128
-0.586934 0.89226 3.19972 128 128 128
-0.583664 0.676657 3.25321 128 128 128
-0.583664 0.676657 3.25321 128 128 128
-0.581148 0.713058 3.25367 128 128 128
-0.542723 0.860414 3.23335 128 128 128
-0.542723 0.860414 3.23335 128 128 128
-0.539265 0.72786 3.2551 128 128 128
-0.521849 0.717187 3.26004 128 128 128
-0.474026 0.593665 3.26098 128 128 128
-0.458077 0.610728 3.26068 128 128 128
-0.450182 0.448099 3.22726 128 128 128
-0.409398 1.00694 3.18955 128 128 128
-0.413371 0.78988 3.2574 128 128 128
-0.411628 0.604754 3.26828 128 128 128
-0.409764 0.664848 3.2629 128 128 128
-0.398711 0.679511 3.26233 128 128 128
-0.395269 0.771546 3.25926 128 128 128
-0.39256 0.623569 3.26475 128 128 128
-0.377599 0.802082 3.25848 128 128 128
-0.363189 0.593879 3.26927 128 128 128
-0.363015 0.593709 3.26848 128 128 128
-0.361714 0.773418 3.25968 128 128 128
-0.360542 0.678929 3.26381 128 128 128
-0.361464 0.679263 3.26566 128 128 128
-0.360335 0.71769 3.26289 128 128 128
-0.343913 0.789609 3.25864 128 128 128
-0.341694 0.601583 3.26716 128 128 128
-0.315369 0.894437 3.20834 128 128 128
-0.298585 0.609528 3.26905 128 128 128
-0.28176 0.593925 3.26924 128 128 128
-0.232865 0.898273 3.21211 128 128 128
-0.233458 0.717127 3.2596 128 128 128
-0.213823 0.860691 3.24169 128 128 128
-0.213823 0.860691 3.24169 128 128 128
-0.176667 0.718544 3.26948 128 128 128
-0.17591 0.685612 3.26838 128 128 128
-0.159427 0.668563 3.27075 128 128 128
-0.159431 0.668211 3.2706 128 128 128
-0.158151 0.735465 3.26628 128 128 128
-0.137504 0.896618 3.21294 128 128 128
-0.120251 0.732598 3.26771 128 128 128
-0.103162 0.895581 3.213 128 128 128
-0.101353 0.713963 3.27171 128 128 128
-0.1004 0.678297 3.27146 128 128 128
-0.0585329 0.729353 3.26974 128 128 128
-0.0394281 0.861539 3.24898 128 128 128
-0.0383874 0.716419 3.27186 128 128 128
0.00079445 0.861955 3.24914 128 128 128
0.036378 1.00694 3.14712 128 128 128
0.0406122 0.897424 3.21835 128 128 128
0.088769 0.718468 3.27611 128 128 128
0.0889411 0.680063 3.27739 128 128 128
0.124725 -1.49845 4.2981 128 128 128
0.125803 -1.4991 4.30145 128 128 128
0.125134 0.680187 3.28122 128 128 128
0.125173 0.776118 3.27757 128 128 128
0.12559 0.775761 3.27616 128 128 128
0.127084 0.718 3.2799 128 128 128
0.128339 0.717453 3.27742 128 128 128
0.143541 0.795502 3.27342 128 128 128
0.25425 0.718373 3.27853 128 128 128
0.26974 0.730796 3.2794 128 128 128
0.26974 0.730796 3.2794 128 128 128
0.300623 0.908423 3.22186 128 128 128
0.311025 0.718942 3.28676 128 128 128
0.311306 0.718497 3.28565 128 128 128
0.311648 0.683021 3.28548 128 128 128
0.316553 0.780326 3.28336 128 128 128
0.317571 0.785783 3.27061 128 128 128
0.318183 0.895529 3.22788 128 128 128
0.329356 0.607973 3.28767 128 128 128
0.329635 0.735178 3.28337 128 128 128
0.329663 0.7354 3.28322 128 128 128
0.329441 0.79421 3.28138 128 128 128
0.330629 0.665307 3.28782 128 128 128
0.346822 0.71539 3.28516 128 128 128
0.346623 0.71489 3.28485 128 128 128
0.355944 0.894488 3.22982 128 128 128
0.369931 0.873068 3.23871 128 128 128
0.372353 0.455897 3.24884 128 128 128
0.388542 0.895796 3.2308 128 128 128
0.403214 0.897711 3.23103 128 128 128
0.410238 0.52113 3.27117 128 128 128
0.436966 0.761759 3.34028 128 128 128
0.445028 0.524146 3.32021 128 128 128
0.450728 0.775502 3.35383 128 128 128
0.447684 0.865797 3.31983 128 128 128
0.443519 0.898216 3.26902 128 128 128
0.464121 0.643513 3.37169 128 128 128
0.465561 0.721356 3.37483 128 128 128
0.472198 0.685851 3.38251 128 128 128
0.471388 0.712734 3.37442 128 128 128
0.511497 0.716946 3.4212 128 128 128
0.519937 0.60138 3.44103 128 128 128
0.522583 0.806207 3.43086 128 128 128
0.515228 0.90128 3.34567 128 128 128
0.530574 0.71623 3.4433 128 128 128
0.545614 0.670437 3.46163 128 128 128
0.548611 0.601269 3.46597 128 128 128
0.5789 0.903521 3.41446 128 128 128
0.601569 0.666974 3.53506 128 128 128
0.601021 0.777813 3.51892 128 128 128
0.610093 0.764876 3.52842 128 128 128
0.603579 0.905912 3.44419 128 128 128
0.64148 0.906056 3.47776 128 128 128
0.682887 0.909511 3.52978 128 128 128
1.44151 1.03466 3.55048 128 128 128
-2.17606 0.320891 4.58459 34 18 14
-2.10144 0.124526 4.60429 117 98 110
-1.95164 0.402075 4.59772 56 43 55
-1.82358 -0.872331 4.66444 128 116 122
-1.82342 -0.872342 4.66464 128 116 122
-1.7902 -0.076045 4.61967 112 94 112
-1.36406 -1.42672 4.7068 68 55 77
-1.18924 -1.4219 4.70716 128 115 128
-0.430403 0.894116 3.20724 49 42 74
-0.254441 0.484857 4.17384 124 108 128
-0.385174 0.893769 3.2085 47 42 84
0.0396964 0.0733554 4.41149 40 35 80
-0.192745 0.861195 3.24511 94 78 113
-0.177843 0.896152 3.21142 50 42 75
-0.131554 0.861224 3.24539 94 76 110
-0.0803918 0.896102 3.21455 58 49 86
0.071339 0.79438 3.27179 64 46 95
0.661036 -1.7268 4.77937 100 80 114
0.718499 -0.892592 4.75957 60 46 67
0.586395 0.328409 4.26821 60 51 77
0.868938 -1.62382 4.78835 82 63 92
1.09667 -0.899003 4.76555 74 58 76
1.3394 -0.578386 4.76363 62 50 71
1.35418 -0.934451 4.7725 128 121 128
1.35819 -0.555917 4.76317 128 119 128
1.48249 -0.905172 4.77594 69 54 78
1.48249 -0.905172 4.77594 69 54 78
1.50243 0.809205 4.69477 59 44 60
1.63134 -0.222256 4.74937 52 46 62
1.72005 0.0778817 4.72934 128 128 128
1.75685 0.206209 4.73485 126 113 128
1.75791 0.526586 4.71605 128 120 128
1.7704 0.515223 4.71671 74 62 76
1.77733 0.0703088 4.73307 95 72 98
1.79412 -0.942373 4.78162 86 64 93
1.83193 -1.7735 4.82191 128 120 128
1.83269 -1.78542 4.82208 77 49 66
1.82783 -0.0359596 4.73835 128 124 128
1.89633 -0.250403 4.75378 128 114 128
2.03864 -1.1017 4.79222 94 69 88
2.08322 -1.25734 4.80354 87 56 78
2.07827 0.129136 4.73575 128 122 128
2.14958 0.518671 4.71851 128 119 128
-2.23458 -1.61717 4.66944 122 106 126
-2.2373 -1.5882 4.67708 128 114 128
-2.12684 -1.03827 4.6604 54 34 50
-1.93831 -0.561239 4.64305 128 113 128
-1.91417 -1.18085 4.67491 56 49 73
-1.78976 -0.0758699 4.61771 110 90 108
-1.5482 -1.16972 4.68506 60 52 70
-1.52043 -1.2376 4.69991 50 40 52
-1.35563 0.311442 4.1976 37 30 49
-1.24078 0.372951 4.20986 44 38 44
-1.01073 0.313788 4.21797 48 41 64
-0.847873 -0.315182 4.52263 42 40 82
-0.581145 0.713084 3.25368 50 39 78
-0.509072 0.861374 3.23809 91 74 106
-0.561071 0.520374 4.16331 60 50 75
-0.560491 0.5205 4.16243 60 50 75
-0.469266 0.847982 3.84033 57 42 69
-0.385034 0.893515 3.2081 47 40 80
-0.453795 0.497233 4.16463 56 47 66
-0.472092 0.108412 4.40563 38 31 58
-0.378544 0.412991 4.23335 58 42 76
-0.28632 -0.544991 4.46554 51 70 90
-0.13181 0.86111 3.24581 88 73 106
-0.13181 0.86111 3.24581 88 73 106
-0.156245 0.0657774 4.34976 29 28 63
-0.0808743 0.896139 3.21565 58 46 83
